ply
format ascii 1.0
comment Author: CloudCompare (TELECOM PARISTECH/EDF R&D)
obj_info Generated by CloudCompare!
element vertex 1402
property float x
property float y
property float z
end_header
-0.0044164 0.013703 0.0582682 
-0.00194197 0.0137924 0.0581495 
-0.00114803 0.0138236 0.0581082 
0.0283278 0.0137653 0.0581856 
0.026701 0.0140708 0.0577801 
0.0184356 0.0138276 0.0581028 
0.0222411 0.0140409 0.0578198 
0.0324445 0.0136966 0.0582766 
0.00952707 0.0138474 0.0580765 
0.034015 0.0137183 0.0582478 
-0.00289116 0.0137339 0.0582272 
0.0236481 0.0140449 0.0578145 
-0.023004 0.0136111 0.0583901 
0.0302413 0.0139432 0.0579494 
0.0288103 0.0140266 0.0578388 
0.0148158 0.0139689 0.0579154 
0.000378806 0.0137529 0.058202 
0.00801177 0.0138664 0.0580513 
0.0221696 0.0140087 0.0578625 
0.0146733 0.013667 0.058316 
0.00093542 0.0137796 0.0581666 
0.0126122 0.0138479 0.0580759 
0.0132603 0.0139302 0.0579668 
0.0211143 0.0135636 0.0584532 
-0.00676157 0.0136315 0.0583631 
0.0353207 0.014012 0.0578581 
0.000823945 0.0137072 0.0582627 
0.0203287 0.0136406 0.058351 
0.0128602 0.0135544 0.0584654 
0.0250888 0.0135757 0.0584371 
-0.0046858 0.0137975 0.0581428 
0.0362557 0.0139821 0.0578978 
0.0243135 0.0138464 0.0580779 
0.0187039 0.0136504 0.058338 
-0.00409576 0.0135567 0.0584624 
0.033164 0.0139619 0.0579246 
0.00316394 0.0136536 0.0583338 
-0.00976954 0.0135865 0.0584228 
0.00170227 0.0136121 0.0583888 
0.0247358 0.013769 0.0581806 
0.000676431 0.0137638 0.0581875 
-0.00430062 0.0137214 0.0582438 
-0.0224054 0.0136026 0.0584015 
0.0216179 0.013766 0.0581846 
-0.00155308 0.0136718 0.0583096 
0.0364986 0.0136133 0.0583873 
0.0304492 0.0139829 0.0578968 
0.0315207 0.0139457 0.0579461 
-0.0102899 0.013609 0.058393 
0.0241864 0.0139444 0.0579479 
0.028287 0.0137141 0.0582534 
0.0090964 0.0138687 0.0580483 
0.0312053 0.0141003 0.0577409 
0.0285329 0.0135689 0.0584461 
0.00243664 0.0135685 0.0584467 
0.0235443 0.0138597 0.0580603 
0.0112138 0.0136702 0.0583117 
-0.0169879 0.0135725 0.0584413 
0.0223143 0.0140064 0.0578656 
0.0160759 0.013875 0.0580399 
0.0145337 0.0136844 0.0582928 
0.0235928 0.0140165 0.0578522 
0.00398203 0.0135756 0.0584373 
-0.0159072 0.0135881 0.0584207 
0.00250792 0.0136268 0.0583694 
-0.00877902 0.0137661 0.0581845 
0.0208542 0.0137677 0.0581824 
0.00812711 0.0137371 0.0582229 
0.0242177 0.0137763 0.0581709 
0.034522 0.0139464 0.0579452 
-0.0122755 0.0136071 0.0583954 
0.0305701 0.0141664 0.0576533 
0.0356736 0.0137885 0.0581547 
0.00261156 0.0136228 0.0583746 
0.0297291 0.013979 0.057902 
0.0324148 0.0135569 0.058462 
0.0341732 0.0141706 0.0576477 
0.0319911 0.0137391 0.0582202 
0.0350804 0.0135675 0.0584481 
0.0222194 0.0139398 0.0579539 
0.0347176 0.0139642 0.0579215 
0.0317523 0.0136835 0.0582941 
0.0278232 0.013647 0.0583425 
0.0149766 0.0135707 0.0584438 
0.0170333 0.0135862 0.0584232 
0.0163692 0.0136999 0.0582723 
0.00364981 0.0135676 0.0584479 
0.0122739 0.0135785 0.0584334 
0.0203267 0.0136432 0.0583476 
-0.0117996 0.0137044 0.0582663 
0.0217557 0.0140429 0.0578171 
0.00590306 0.0138402 0.0580861 
0.0342676 0.0138056 0.0581321 
0.00978923 0.0136341 0.0583596 
0.0304074 0.0137275 0.0582356 
0.0324459 0.0136204 0.0583778 
0.0255981 0.0138844 0.0580275 
0.0281509 0.0136934 0.0582809 
0.0198352 0.0140632 0.0577901 
0.034248 0.0137439 0.0582139 
-0.0306092 0.01357 0.0583179 
-0.030164 0.0137679 0.0581257 
-0.0304045 0.0140857 0.0576658 
-0.032046 0.0136187 0.0580257 
-0.0316516 0.0135845 0.0581335 
-0.0309325 0.0135539 0.058288 
-0.030785 0.014066 0.0576317 
-0.0315953 0.0139864 0.057609 
-0.0316689 0.0137857 0.0578637 
-0.0314406 0.0138945 0.0577555 
-0.0316894 0.0140225 0.0575462 
-0.0324937 0.0139852 0.0573622 
-0.0329521 0.0136032 0.0576906 
-0.0335982 0.0137072 0.0572085 
-0.0338826 0.0137518 0.056998 
-0.0327481 0.0136215 0.0577677 
-0.0339661 0.0137713 0.0569266 
-0.034061 0.0138354 0.0567841 
-0.0327139 0.0141001 0.0570809 
-0.0335148 0.0140707 0.0567162 
-0.034081 0.0139462 0.0566109 
-0.0345601 0.0137545 0.05663 
-0.0346823 0.0138375 0.0563541 
-0.0349922 0.0135518 0.0565737 
-0.0346829 0.0137747 0.0564699 
-0.0350226 0.0138226 0.0560414 
-0.0343253 0.0142354 0.0559735 
-0.0353137 0.0141376 0.0551663 
-0.0347844 0.0140644 0.0558313 
-0.0359969 0.0137356 0.0552283 
-0.0360411 0.0138483 0.0549752 
-0.0363347 0.0139244 0.0543278 
-0.0367063 0.0135845 0.0545801 
-0.0364017 0.0139726 0.0540573 
-0.037572 0.0135717 0.052918 
-0.0366578 0.0138389 0.0539408 
-0.0361219 0.0142051 0.053935 
-0.0372061 0.0138912 0.0527135 
-0.0364117 0.0140724 0.0537493 
-0.0363659 0.0141391 0.0536468 
-0.0364327 0.0142349 0.0532389 
-0.0374503 0.0137861 0.0522987 
-0.0374954 0.0137931 0.0519557 
-0.0376071 0.0136884 0.0521277 
-0.03753 0.0137626 0.0519925 
-0.0377435 0.0136109 0.0519155 
-0.0376421 0.0137424 0.0514538 
-0.0370376 0.0141408 0.0519327 
-0.0375016 0.0139786 0.0503629 
-0.0371772 0.0142425 0.0501992 
-0.0372663 0.0140203 0.0514986 
-0.0369145 0.0142052 0.0521703 
-0.0387442 0.00608291 -0.000194506 
-0.0387376 0.00702214 -0.000211487 
-0.0387654 0.00426523 -0.000208407 
-0.0387288 0.00733827 -0.000179184 
-0.0388053 0.000247718 -0.000189647 
-0.0385505 0.00581204 0.000143555 
-0.0384283 0.00730699 0.000197827 
-0.0382322 0.0114525 0.000194138 
-0.0386839 0.0114303 -0.000160854 
-0.0387737 0.00111858 -6.22465e-05 
-0.038703 0.00917328 -0.00013699 
-0.0387239 0.00616972 -8.5742e-05 
-0.0387169 0.00262617 2.33506e-05 
-0.038742 0.00287902 -3.38103e-05 
-0.0387072 0.00547488 -3.21214e-05 
-0.0386596 0.0114776 -9.97665e-05 
-0.0386707 0.0111935 -0.000110122 
-0.0386972 0.00440189 1.39094e-05 
-0.038617 0.011078 -2.34209e-05 
-0.038642 0.0076386 2.08834e-05 
-0.0386399 0.00646453 4.79172e-05 
-0.0385635 0.0118512 3.99595e-05 
-0.0385142 0.00902132 0.000116739 
-0.0384388 0.0110544 0.000135892 
-0.0385236 0.00762164 0.000130762 
-0.0377383 0.013822 -8.11231e-05 
-0.0372084 0.0142213 0.0396233 
-0.0373294 0.0141301 0.0127871 
-0.0376269 0.013906 0.0110233 
-0.0373329 0.0141275 0.00786813 
-0.0371948 0.0142315 0.00291706 
-0.0378963 0.0137029 0.00610808 
-0.0379009 0.0136995 -0.000797203 
-0.037706 0.0138463 0.00349023 
-0.0371746 0.0142468 0.042533 
-0.0380141 0.0136142 0.00094219 
-0.0373086 0.0141458 0.0291576 
-0.0376131 0.0139164 0.00399362 
-0.0376627 0.013879 0.0194207 
-0.0376253 0.0139071 0.0196035 
-0.0373123 0.014143 0.0124792 
-0.0373812 0.0140911 0.0350402 
-0.0379502 0.0136623 0.00235857 
-0.0374615 0.0140306 0.0217586 
-0.037535 0.0139752 0.00172513 
-0.0372527 0.0141879 0.0273528 
-0.0374764 0.0140194 0.00214026 
-0.0375287 0.0139799 0.00587144 
-0.0378003 0.0137753 0.0148276 
-0.0373914 0.0140834 0.0311453 
-0.0373105 0.0141443 0.00663016 
-0.037434 0.0140512 0.0334673 
-0.037325 0.0141334 0.0016964 
-0.037319 0.0141379 0.00143911 
-0.0379984 0.013626 0.00204622 
-0.0373736 0.0140968 0.0121787 
-0.0376332 0.0139012 0.00157958 
-0.0372365 0.0142001 0.00261329 
-0.0373506 0.0141141 0.0172666 
-0.0373721 0.014098 0.00363151 
-0.0376219 0.0139097 0.00535789 
-0.0373406 0.0141217 0.0387335 
-0.0374735 0.0140215 0.00242149 
-0.0375374 0.0139733 0.00632788 
-0.0373722 0.0140979 0.0366367 
-0.0372097 0.0142203 0.0413824 
-0.0374609 0.014031 0.029999 
-0.0377272 0.0138304 0.0149022 
-0.0379697 0.0136476 0.00486883 
-0.0373671 0.0141017 0.00842249 
-0.0372606 0.0141819 0.0197026 
-0.0372205 0.0142122 0.00652464 
-0.0372606 0.014182 -0.000759546 
-0.0373249 0.0141335 0.00888387 
-0.0371799 0.0142428 0.0441108 
-0.0375962 0.0139291 0.00978985 
-0.0376607 0.0138804 -0.000515454 
-0.0372123 0.0142184 0.0322859 
-0.0372483 0.0141912 0.0318836 
-0.0374775 0.0140185 0.000545266 
-0.0376498 0.0138887 0.0184292 
-0.0377346 0.0138248 0.00671584 
-0.0377894 0.0137835 0.00739366 
-0.037227 0.0142073 0.0357838 
-0.0371722 0.0142486 0.00179729 
-0.03731 0.0141447 0.000639278 
-0.037399 0.0140777 0.0140228 
-0.0371799 0.0142428 0.0483169 
-0.0378253 0.0137564 0.00428084 
-0.0375176 0.0139883 0.00413036 
-0.037283 0.014165 0.0409456 
-0.0372132 0.0142177 0.0423083 
-0.0374767 0.0140191 0.0310432 
-0.0372161 0.0142155 0.0173434 
-0.0372204 0.0142122 0.0238858 
-0.0379313 0.0136765 0.00217433 
-0.0373675 0.0141014 0.0248313 
-0.0374571 0.0140339 0.0321762 
-0.0378318 0.0137515 0.00039256 
-0.0372298 0.0142051 0.0391332 
-0.037192 0.0142337 0.0116689 
-0.0378794 0.0137156 0.00382496 
-0.0377213 0.0138348 -0.000532607 
-0.037272 0.0141734 0.000460658 
-0.0372204 0.0142122 0.00627127 
-0.0375592 0.0139569 0.024459 
-0.037404 0.0140739 0.00731759 
-0.0379146 0.0136891 -0.000388855 
-0.03721 0.0142201 0.0452028 
-0.0371891 0.0142358 0.00599321 
-0.0372455 0.0141934 0.0164958 
-0.0374854 0.0140126 0.0312885 
-0.0372832 0.0141649 0.0265015 
-0.0376264 0.0139063 0.0173736 
-0.0371896 0.0142354 0.0182315 
-0.0378256 0.0137562 0.0128804 
-0.0371829 0.0142405 0.00248707 
-0.0374362 0.0140497 0.024412 
-0.0376406 0.0138956 0.0207604 
-0.0371922 0.0142335 0.0338299 
-0.0371751 0.0142464 0.0159904 
-0.0375373 0.0139734 0.0294272 
-0.0374995 0.0140019 0.00769188 
-0.0373191 0.0141378 0.0348315 
-0.0372479 0.0141916 0.0119791 
-0.037514 0.013991 0.0231007 
-0.0371946 0.0142317 0.0472377 
-0.0375117 0.0139927 0.00207717 
-0.0374762 0.0140195 0.0163036 
-0.0375246 0.013983 0.0249907 
-0.0373025 0.0141504 0.00319792 
-0.0376742 0.0138703 0.0024941 
-0.0379901 0.0136322 -0.000622874 
-0.0375974 0.0139281 0.0056275 
-0.0378907 0.0137072 0.00691321 
-0.0371976 0.0142294 0.0191188 
-0.0373334 0.0141271 0.013175 
-0.0372773 0.0141694 0.00933382 
-0.0374612 0.0140308 0.0175341 
-0.0378027 0.0137735 0.0128884 
-0.0377689 0.013799 0.0410837 
-0.0376323 0.0139019 0.0426701 
-0.03808 0.0135645 0.0486816 
-0.0379738 0.0136445 0.025087 
-0.03743 0.0140543 0.044261 
-0.0379428 0.0136679 0.0456251 
-0.0377459 0.0138163 0.0300161 
-0.0376639 0.0138781 0.0482237 
-0.0372983 0.0141536 0.044913 
-0.0375733 0.0139463 0.0366873 
-0.0378921 0.0137061 0.040722 
-0.037649 0.0138893 0.0445512 
-0.0376738 0.0138706 0.0424062 
-0.0374982 0.0140029 0.0449311 
-0.0380753 0.0135681 0.0204328 
-0.0379342 0.0136744 0.0439992 
-0.0373495 0.014115 0.0402061 
-0.0380015 0.0136237 0.015791 
-0.0379353 0.0136735 0.0456283 
-0.0375926 0.0139318 0.0492426 
-0.0380205 0.0136093 0.0291193 
-0.0373048 0.0141487 0.0482157 
-0.0378988 0.013701 0.017432 
-0.0377056 0.0138466 0.0498031 
-0.0376551 0.0138846 0.0254251 
-0.0380002 0.0136246 0.00812843 
-0.0378506 0.0137373 0.018857 
-0.0378152 0.0137641 0.017287 
-0.0374413 0.0140458 0.0404198 
-0.0377766 0.0137931 0.0436125 
-0.0377691 0.0137987 0.0284459 
-0.0379495 0.0136628 0.0346603 
-0.0378683 0.013724 0.0265733 
-0.0377361 0.0138236 0.0204546 
-0.0379562 0.0136578 0.041836 
-0.0380727 0.01357 0.0108251 
-0.0379729 0.0136452 0.0109344 
-0.0374478 0.0140409 0.049432 
-0.0377395 0.0138211 0.0388744 
-0.0378805 0.0137148 0.0432066 
-0.0379431 0.0136677 0.00879554 
-0.0378158 0.0137636 0.0432623 
-0.0378971 0.0137023 0.0210092 
-0.038001 0.013624 0.04865 
-0.0376754 0.0138694 0.0337111 
-0.0374956 0.0140049 0.0323474 
-0.0378002 0.0137754 0.0167654 
-0.0377126 0.0138413 0.0219981 
-0.0377241 0.0138327 0.0358476 
-0.0379236 0.0136823 0.0114222 
-0.0380032 0.0136224 0.0199074 
-0.0377959 0.0137786 0.0214 
-0.0379967 0.0136273 0.0207908 
-0.037785 0.0137868 0.0179693 
-0.0380013 0.0136238 0.0210699 
-0.0375167 0.013989 0.0423177 
-0.0378671 0.0137249 0.0344409 
-0.0377376 0.0138225 0.0190557 
-0.0378466 0.0137404 0.0424239 
-0.037967 0.0136496 0.013176 
-0.0378667 0.0137252 0.0311645 
-0.0379465 0.0136651 0.0308343 
-0.0375384 0.0139726 0.0375605 
-0.0375807 0.0139408 0.045775 
-0.0377493 0.0138137 0.049294 
-0.0377664 0.0138008 0.0262822 
-0.0379502 0.0136623 0.0217412 
-0.0373039 0.0141493 0.0432734 
-0.0379139 0.0136897 0.0432853 
-0.0373404 0.0141218 0.0429693 
-0.0379077 0.0136943 0.0373727 
-0.0379605 0.0136546 0.0337406 
-0.0377967 0.013778 0.0422428 
-0.0376737 0.0138707 0.0385467 
-0.0379351 0.0136737 0.0163254 
-0.0379406 0.0136695 0.0126046 
-0.0379621 0.0136534 0.0164035 
-0.0374091 0.0140701 0.0485795 
-0.0379305 0.0136771 0.00886738 
-0.0380005 0.0136244 0.0411209 
-0.0380526 0.0135851 0.0417638 
-0.0372675 0.0141768 0.0458052 
-0.0374727 0.0140221 0.0417698 
-0.0378748 0.0137191 0.0292263 
-0.0377961 0.0137785 0.0153847 
-0.037824 0.0137574 0.0159821 
-0.0379377 0.0136717 0.0176361 
-0.0378103 0.0137677 0.0492133 
-0.0380083 0.0136185 0.0265673 
-0.0375016 0.0140004 0.0382509 
-0.037917 0.0136873 0.0199793 
-0.0379792 0.0136404 0.0495911 
-0.0378285 0.013754 0.0179494 
-0.0375235 0.0139838 0.0436548 
-0.0379826 0.0136379 0.0356214 
-0.0373099 0.0141448 0.0425432 
-0.0375572 0.0139584 0.0473697 
-0.0377905 0.0137826 0.0168462 
-0.0378177 0.0137622 0.0468598 
-0.0380941 0.0135539 0.0253064 
-0.0379542 0.0136593 0.0149858 
-0.0375618 0.013955 0.0488946 
-0.0377552 0.0138093 0.0438236 
-0.0380714 0.013571 0.0216032 
-0.0378916 0.0137065 0.00998893 
-0.037785 0.0137868 0.0164574 
-0.0379508 0.0136618 0.0198408 
-0.0377896 0.0137833 0.0178335 
-0.0378028 0.0137733 0.0440518 
-0.0378916 0.0137065 0.0225464 
-0.0379989 0.0136256 0.0206176 
-0.0373736 0.0140968 0.0404488 
-0.0374902 0.014009 0.0491953 
-0.0374901 0.014009 0.0497001 
-0.037989 0.0136331 0.0132768 
-0.0174399 0.00704469 -0.00876991 
-0.0195737 0.0107713 -0.00876991 
-0.0256481 0.0040067 -0.00876991 
-0.0224595 0.00037041 -0.00876991 
-0.0287878 0.00288472 -0.00876991 
-0.0229375 0.0128722 -0.00876991 
-0.0291877 -0.00255222 -0.00876991 
-0.0172423 0.0103587 -0.00876991 
-0.0178418 0.0121855 -0.00876991 
-0.027326 -0.00878205 -0.00876991 
-0.0196827 0.00674906 -0.00876991 
-0.0289345 -0.00811079 -0.00876991 
-0.018417 0.00987269 -0.00876991 
-0.0235221 0.00370847 -0.00876991 
-0.0252797 -0.00621599 -0.00876991 
-0.0296718 -0.00850746 -0.00876991 
-0.0280418 -0.00136077 -0.00876991 
-0.0294532 0.00579728 -0.00876991 
-0.0214992 0.00999057 -0.00876991 
-0.0218187 0.000675369 -0.00876991 
-0.0287552 -0.00800673 -0.00876991 
-0.0267891 -0.00409661 -0.00876991 
-0.0293694 0.00649038 -0.00876991 
-0.0235521 -0.000367153 -0.00876991 
-0.018836 0.00771939 -0.00876991 
-0.0230328 0.0119332 -0.00876991 
-0.0290829 0.00527544 -0.00876991 
-0.0188896 0.00864683 -0.00876991 
-0.0165839 0.00932509 -0.00876991 
-0.0296748 0.00882401 -0.00876991 
-0.0281279 0.00755839 -0.00876991 
-0.0203095 0.0087552 -0.00876991 
-0.0291931 0.00130816 -0.00876991 
-0.0269438 -0.000595973 -0.00876991 
-0.0246036 -0.00289966 -0.00876991 
-0.0227334 0.0129446 -0.00876991 
-0.021863 0.0115388 -0.00876991 
-0.0231819 0.000638299 -0.00876991 
-0.0156226 0.0104761 -0.00876991 
-0.0210965 0.0108953 -0.00876991 
-0.0156148 0.00850079 -0.00876991 
-0.029254 0.00811859 -0.00876991 
-0.0209194 0.00164649 -0.00876991 
-0.0220024 0.00527864 -0.00876991 
-0.0271238 0.00897794 -0.00876991 
-0.0256966 0.0119272 -0.00876991 
-0.0282469 2.65855e-05 -0.00876991 
-0.0275846 -0.0095478 -0.00876991 
-0.0252893 0.0080127 -0.00876991 
-0.0181419 0.00451584 -0.00876991 
-0.0166595 0.00906203 -0.00876991 
-0.0293036 -0.0116957 -0.00876991 
-0.0260829 0.0107456 -0.00876991 
-0.0263466 0.00084269 -0.00876991 
-0.0255643 0.00957693 -0.00876991 
-0.0285585 -0.00393028 -0.00876991 
-0.0270555 -0.00175421 -0.00876991 
-0.0292808 -0.00688282 -0.00876991 
-0.0225702 0.0103146 -0.00876991 
-0.0278458 0.00821411 -0.00876991 
-0.0169117 0.0123737 -0.00876991 
-0.023158 0.0019288 -0.00876991 
-0.0165934 0.00745381 -0.00876991 
-0.0296295 -0.0100442 -0.00876991 
-0.018923 0.0120134 -0.00876991 
-0.0237232 -0.00331626 -0.00876991 
-0.0231652 0.00267158 -0.00876991 
-0.0206358 0.00296199 -0.00876991 
-0.0222694 0.00479978 -0.00876991 
-0.0293664 0.00226429 -0.00876991 
-0.0216589 0.0109977 -0.00876991 
-0.0291934 0.00489994 -0.00876991 
-0.0292301 -0.00586344 -0.00876991 
-0.0240506 -0.000699152 -0.00876991 
-0.0159633 0.0117537 -0.00876991 
-0.0211262 0.00336328 -0.00876991 
-0.02493 0.000327813 -0.00876991 
-0.0251897 0.000926847 -0.00876991 
-0.0182922 0.0127175 -0.00876991 
-0.0264683 -0.0071313 -0.00876991 
-0.0275449 0.0080117 -0.00876991 
-0.0230199 0.000322332 -0.00876991 
-0.0167588 0.00841256 -0.00876991 
-0.0263383 0.00247834 -0.00876991 
-0.0269407 -0.000134955 -0.00876991 
-0.0256748 0.0115913 -0.00876991 
-0.0296667 -0.00876915 -0.00876991 
-0.0281684 0.00988073 -0.00876991 
-0.0266899 0.00311321 -0.00876991 
-0.0153309 0.0129431 -0.00876991 
-0.0295669 -0.0124069 -0.00876991 
-0.0270008 0.00213726 -0.00876991 
-0.0294402 0.00163623 -0.00876991 
-0.0180512 0.011574 -0.00876991 
-0.0248179 -0.00326933 -0.00876991 
-0.0273661 0.00608244 -0.00876991 
-0.0268291 -0.00445367 -0.00876991 
-0.0152677 0.0118469 -0.00876991 
-0.0204964 0.00105926 -0.00876991 
-0.0283686 -0.00243099 -0.00876991 
-0.0230661 0.00846333 -0.00876991 
-0.0176756 0.00689582 -0.00876991 
-0.0294131 0.0126393 -0.00876991 
-0.0293408 0.00510618 -0.00876991 
-0.016437 0.0121788 -0.00876991 
-0.025014 0.00340677 -0.00876991 
-0.0289432 -0.000391224 -0.00876991 
-0.0267027 0.00798576 -0.00876991 
-0.0148286 0.0127262 -0.00876991 
-0.0265725 0.0100198 -0.00876991 
-0.0251802 -0.00409923 -0.00876991 
-0.0251475 0.00790958 -0.00876991 
-0.02843 0.0117103 -0.00876991 
-0.0273289 0.00561889 -0.00876991 
-0.0217303 0.0100461 -0.00876991 
-0.0288736 -0.000769884 -0.00876991 
-0.0196689 0.0051823 -0.00876991 
-0.0282965 -0.00358118 -0.00876991 
-0.0245361 -0.00500383 -0.00876991 
-0.0276864 -0.00456951 -0.00876991 
-0.0254544 0.00602461 -0.00876991 
-0.016446 0.00858812 -0.00876991 
-0.0206345 0.00407359 -0.00876991 
-0.0235208 0.0115221 -0.00876991 
-0.0203348 0.0114591 -0.00876991 
-0.0202694 0.0057792 -0.00876991 
-0.0170775 0.00772145 -0.00876991 
-0.0185423 0.00528007 -0.00876991 
-0.0261036 -0.000470347 -0.00876991 
-0.0157199 0.0125162 -0.00876991 
-0.0192353 0.00680664 -0.00876991 
-0.0253609 -0.00377179 -0.00876991 
-0.0271236 -0.00102729 -0.00876991 
-0.0285632 0.0097585 -0.00876991 
-0.0216339 0.00453092 -0.00876991 
-0.0259572 -0.00588546 -0.00876991 
-0.0274794 0.00714271 -0.00876991 
-0.0177859 0.0117789 -0.00876991 
-0.02868 -0.00397966 -0.00876991 
-0.0235293 0.000580915 -0.00876991 
-0.0185305 0.00971099 -0.00876991 
-0.0278828 0.0126706 -0.00876991 
-0.0188912 0.00523474 -0.00876991 
-0.0284055 -0.00538774 -0.00876991 
-0.0288382 -0.0111507 -0.00876991 
-0.0296759 0.0113697 -0.00876991 
-0.024857 0.0125872 -0.00876991 
-0.0245883 0.0124412 -0.00876991 
-0.0244449 0.00207406 -0.00876991 
-0.0214484 0.00565033 -0.00876991 
-0.0281028 0.00113446 -0.00876991 
-0.026525 0.00193536 -0.00876991 
-0.0267413 0.00290162 -0.00876991 
-0.0224765 0.00478317 -0.00876991 
-0.0245133 0.00926586 -0.00876991 
-0.0233596 0.000188661 -0.00876991 
-0.0214854 0.00819668 -0.00876991 
-0.0269754 -0.00769802 -0.00876991 
-0.0229174 0.0120612 -0.00876991 
-0.019353 0.0074101 -0.00876991 
-0.027921 0.0025586 -0.00876991 
-0.0277054 0.00925815 -0.00876991 
-0.0269897 0.00968018 -0.00876991 
-0.0280684 0.00221155 -0.00876991 
-0.0240236 -0.00276526 -0.00876991 
-0.0271329 0.000841586 -0.00876991 
-0.0254694 -0.00243166 -0.00876991 
-0.0238907 0.00841683 -0.00876991 
-0.0245287 0.00389536 -0.00876991 
-0.0296388 0.000203382 -0.00876991 
-0.0286112 -0.00450602 -0.00876991 
-0.0203636 0.00491039 -0.00876991 
-0.023236 0.000287587 -0.00876991 
-0.0130232 0.0125889 -0.00876991 
-0.0238624 0.0102161 -0.00876991 
-0.0218101 0.00246028 -0.00876991 
-0.0267624 -0.00116342 -0.00876991 
-0.0194648 0.0115829 -0.00876991 
-0.0289479 -0.00819769 -0.00876991 
-0.027774 0.00392011 -0.00876991 
-0.0265083 0.0124428 -0.00876991 
-0.0265113 0.011186 -0.00876991 
-0.0153922 0.0117592 -0.00876991 
-0.0280346 0.0100734 -0.00876991 
-0.0242591 0.000499726 -0.00876991 
-0.0289782 0.00988088 -0.00876991 
-0.0262561 -0.00726101 -0.00876991 
-0.0267886 0.0110159 -0.00876991 
-0.0284716 0.00637451 -0.00876991 
-0.0146793 0.0119166 -0.00876991 
-0.029717 0.0102772 -0.00876991 
-0.0285714 -0.00461746 -0.00876991 
-0.0230723 0.0114854 -0.00876991 
-0.0176221 0.0100427 -0.00876991 
-0.0212637 0.00277157 -0.00876991 
-0.0187176 0.00484211 -0.00876991 
-0.0172097 0.0109195 -0.00876991 
-0.0283114 0.0123985 -0.00876991 
-0.0269108 -0.005065 -0.00876991 
-0.0285162 -0.0059859 -0.00876991 
-0.0272642 0.00289648 -0.00876991 
-0.0296122 0.0117979 -0.00876991 
-0.0237335 0.00224434 -0.00876991 
-0.0234957 -0.00154325 -0.00876991 
-0.0216815 0.0072933 -0.00876991 
-0.0236606 0.00682567 -0.00876991 
-0.0245104 0.000306486 -0.00876991 
-0.0258327 0.00188114 -0.00876991 
-0.02595 0.00366035 -0.00876991 
-0.0236461 -0.00376852 -0.00876991 
-0.0194623 0.012314 -0.00876991 
-0.0171841 0.00973543 -0.00876991 
-0.0270159 -0.0044913 -0.00876991 
-0.0167195 0.0107562 -0.00876991 
-0.0271272 -0.000146484 -0.00876991 
-0.0216425 0.00595397 -0.00876991 
-0.0280834 -0.000834816 -0.00876991 
-0.0285192 -0.000108899 -0.00876991 
-0.0291071 0.00690547 -0.00876991 
-0.0245731 -0.00289996 -0.00876991 
-0.0234804 0.00597984 -0.00876991 
-0.0221068 0.00554503 -0.00876991 
-0.0296148 -0.00147657 -0.00876991 
-0.0200372 0.00914877 -0.00876991 
-0.0205241 0.00293738 -0.00876991 
-0.025127 0.0126717 -0.00876991 
-0.0273927 -0.000430008 -0.00876991 
-0.0212655 0.0116953 -0.00876991 
-0.0281905 -0.00426138 -0.00876991 
-0.025596 0.00943449 -0.00876991 
-0.0281208 0.0037662 -0.00876991 
-0.0271716 -0.00756056 -0.00876991 
-0.0230617 0.000630176 -0.00876991 
-0.0212883 0.00818562 -0.00876991 
-0.0223994 0.00288104 -0.00876991 
-0.0259174 -0.00156583 -0.00876991 
-0.025037 -0.00487578 -0.00876991 
-0.0184311 0.00757883 -0.00876991 
-0.0276166 0.00791397 -0.00876991 
-0.0255687 0.00908704 -0.00876991 
-0.0223804 -0.000566329 -0.00876991 
-0.02482 -0.00420995 -0.00876991 
-0.0256066 0.00190294 -0.00876991 
-0.0214864 0.00370588 -0.00876991 
-0.024612 0.00992658 -0.00876991 
-0.0250273 0.0080258 -0.00876991 
-0.0292979 0.0119273 -0.00876991 
-0.0276984 0.00940621 -0.00876991 
-0.0183098 0.00901916 -0.00876991 
-0.0288026 0.00366841 -0.00876991 
-0.0234948 0.0101065 -0.00876991 
-0.0222045 -0.000857984 -0.00876991 
-0.0265961 -0.00792929 -0.00876991 
-0.0175721 0.00798753 -0.00876991 
-0.026275 0.00833911 -0.00876991 
-0.0277127 0.00453265 -0.00876991 
-0.0266344 -0.00505845 -0.00876991 
-0.0165089 0.012883 -0.00876991 
-0.0256489 0.00136839 -0.00876991 
-0.026928 0.00280477 -0.00876991 
-0.0220566 0.0083797 -0.00876991 
-0.0272118 -0.00870873 -0.00876991 
-0.0281378 0.0095921 -0.00876991 
-0.0270258 0.0100025 -0.00876991 
-0.0276448 0.00480471 -0.00876991 
-0.0163014 0.00885253 -0.00876991 
-0.0217022 0.00415604 -0.00876991 
-0.0237001 0.00328076 -0.00876991 
-0.0233551 0.00698913 -0.00876991 
-0.0154128 0.0124912 -0.00876991 
-0.0206977 0.00932024 -0.00876991 
-0.0145626 0.0119704 -0.00876991 
-0.0265182 0.0082477 -0.00876991 
-0.0193214 0.00272497 -0.00876991 
-0.0262857 0.00960417 -0.00876991 
-0.0288218 0.00392275 -0.00876991 
-0.0247277 0.00719093 -0.00876991 
-0.0175095 0.00919561 -0.00876991 
-0.0198261 0.0114035 -0.00876991 
-0.0297286 0.0122824 -0.00876991 
-0.0278075 -0.00360904 -0.00876991 
-0.0251714 -0.0052762 -0.00876991 
-0.0166141 0.0119435 -0.00876991 
-0.0193256 0.00916374 -0.00876991 
-0.0272798 0.00064938 -0.00876991 
-0.0284766 -0.00536308 -0.00876991 
-0.0202064 0.00514537 -0.00876991 
-0.0188248 0.00459533 -0.00876991 
-0.0253311 0.00608985 -0.00876991 
-0.0293 0.00831287 -0.00876991 
-0.0187971 0.00588292 -0.00876991 
-0.0264341 0.00624969 -0.00876991 
-0.0261798 0.00655969 -0.00876991 
-0.0183094 0.0046037 -0.00876991 
-0.0190783 0.0100794 -0.00876991 
-0.0242186 0.0117366 -0.00876991 
-0.0205316 0.00881641 -0.00876991 
-0.0239782 0.00575832 -0.00876991 
-0.0273185 0.0104495 -0.00876991 
-0.0215297 3.57777e-05 -0.00876991 
-0.0268804 -0.00664741 -0.00876991 
-0.0226415 0.0112667 -0.00876991 
-0.0233012 0.00259051 -0.00876991 
-0.0216141 0.00393175 -0.00876991 
-0.0160071 0.00857357 -0.00876991 
-0.0283977 0.00945353 -0.00876991 
-0.0283276 0.0112055 -0.00876991 
-0.0212462 0.00842787 -0.00876991 
-0.0283327 0.00427032 -0.00876991 
-0.0221184 0.00495567 -0.00876991 
-0.0257661 -0.00146476 -0.00876991 
-0.0269757 -0.003107 -0.00876991 
-0.0248718 0.00479202 -0.00876991 
-0.0245442 -0.00331668 -0.00876991 
-0.0273996 0.00835719 -0.00876991 
-0.0209904 0.00349116 -0.00876991 
-0.0222359 0.00471519 -0.00876991 
-0.0250739 0.0120322 -0.00876991 
-0.0226739 0.00879065 -0.00876991 
-0.0225927 0.00278182 -0.00876991 
-0.017808 0.0102981 -0.00876991 
-0.025326 0.00212411 -0.00876991 
-0.0195758 0.00856892 -0.00876991 
-0.0233476 0.0060714 -0.00876991 
-0.020226 0.0091024 -0.00876991 
-0.0199468 0.00907321 -0.00876991 
-0.0291889 -0.00151487 -0.00876991 
-0.0291935 -0.00661595 -0.00876991 
-0.024665 0.000925672 -0.00876991 
-0.0198078 0.0124827 -0.00876991 
-0.0181237 0.0101848 -0.00876991 
-0.0297464 -0.00647513 -0.00876991 
-0.0269534 0.00437916 -0.00876991 
-0.0293515 0.00617099 -0.00876991 
-0.0279947 0.00472275 -0.00876991 
-0.0205548 0.00242433 -0.00876991 
-0.0172436 0.00688183 -0.00876991 
-0.0252121 0.000174771 -0.00876991 
-0.013514 0.0127664 -0.00876991 
-0.0169951 0.00715074 -0.00876991 
-0.0265621 0.00420391 -0.00876991 
-0.0212851 0.00988227 -0.00876991 
-0.0165057 0.00726326 -0.00876991 
-0.021918 0.00238892 -0.00876991 
-0.0161119 0.0102235 -0.00876991 
-0.0239108 0.00525471 -0.00876991 
-0.025959 0.0103632 -0.00876991 
-0.0240022 -0.000669608 -0.00876991 
-0.02629 0.00114844 -0.00876991 
-0.0247046 0.00114291 -0.00876991 
-0.0209373 0.000334333 -0.00876991 
-0.0251838 0.00676975 -0.00876991 
-0.025516 -0.005593 -0.00876991 
-0.0236665 0.000186784 -0.00876991 
-0.0232987 0.000388724 -0.00876991 
-0.0243597 -0.000631425 -0.00876991 
-0.0227882 0.00786694 -0.00876991 
-0.0240196 0.00551947 -0.00876991 
-0.0241959 0.0115309 -0.00876991 
-0.0272854 -0.0075111 -0.00876991 
-0.0251849 -0.00255234 -0.00876991 
-0.024603 -0.000112151 -0.00876991 
-0.0244467 0.0069677 -0.00876991 
-0.0298042 -0.0101971 -0.00876991 
-0.0238478 0.0033455 -0.00876991 
-0.0234318 0.00648342 -0.00876991 
-0.0203141 0.00562898 -0.00876991 
-0.0269713 0.000383256 -0.00876991 
-0.0208033 0.00452353 -0.00876991 
-0.025459 -0.00498766 -0.00876991 
-0.0197356 0.00766963 -0.00876991 
-0.0232179 0.0045199 -0.00876991 
-0.022362 0.0122691 -0.00876991 
-0.0203586 0.0013555 -0.00876991 
-0.0266887 0.0124258 -0.00876991 
-0.0145598 0.0121659 -0.00876991 
-0.026095 0.0114591 -0.00876991 
-0.0204772 0.00826131 -0.00876991 
-0.0291895 0.00547428 -0.00876991 
-0.0290838 0.00108261 -0.00876991 
-0.0240484 0.00355432 -0.00876991 
-0.0210007 0.0087608 -0.00876991 
-0.0296845 -0.00095515 -0.00876991 
-0.0255838 0.00773566 -0.00876991 
-0.0203276 0.00951859 -0.00876991 
-0.0291796 0.0110925 -0.00876991 
-0.0295615 0.00257361 -0.00876991 
-0.0228213 0.0100282 -0.00876991 
-0.0196353 0.0115211 -0.00876991 
-0.0245991 0.00778067 -0.00876991 
-0.0179377 0.00706604 -0.00876991 
-0.020882 0.0106025 -0.00876991 
-0.0258101 -0.00667127 -0.00876991 
-0.0286163 0.00396144 -0.00876991 
-0.0256096 -0.00239659 -0.00876991 
-0.0218698 0.0108306 -0.00876991 
-0.0256986 -0.0039977 -0.00876991 
-0.0265947 0.00673927 -0.00876991 
-0.0254517 -0.000762342 -0.00876991 
-0.0208719 0.0115227 -0.00876991 
-0.0296559 -0.00950563 -0.00876991 
-0.0257729 -0.00686595 -0.00876991 
-0.0204485 0.00114133 -0.00876991 
-0.0249585 -0.000572235 -0.00876991 
-0.0261522 -0.00669687 -0.00876991 
-0.0200945 0.00545901 -0.00876991 
-0.0280768 0.0126898 -0.00876991 
-0.0287298 0.0127231 -0.00876991 
-0.0167562 0.00858768 -0.00876991 
-0.0220981 0.0122815 -0.00876991 
-0.0238043 0.00531816 -0.00876991 
-0.0218008 0.0123975 -0.00876991 
-0.027273 0.0054592 -0.00876991 
-0.020809 0.0128833 -0.00876991 
-0.0260931 0.00130542 -0.00876991 
-0.0191083 0.00520865 -0.00876991 
-0.0280688 0.0120865 -0.00876991 
-0.0262976 -0.00227052 -0.00876991 
-0.0257492 -0.00593788 -0.00876991 
-0.0218673 0.000411504 -0.00876991 
-0.0259854 0.00573254 -0.00876991 
-0.0230028 0.0098327 -0.00876991 
-0.0238206 -0.00318361 -0.00876991 
-0.0268081 -0.004439 -0.00876991 
-0.0282431 -0.00839891 -0.00876991 
-0.0273981 -0.00897065 -0.00876991 
-0.0273772 -0.00612735 -0.00876991 
-0.0269244 0.0117716 -0.00876991 
-0.0254029 -0.00200242 -0.00876991 
-0.0216802 0.00971129 -0.00876991 
-0.025939 0.0116039 -0.00876991 
-0.026744 -0.00292376 -0.00876991 
-0.0270436 -0.000679369 -0.00876991 
-0.0280191 -0.00523453 -0.00876991 
-0.025852 -0.00308396 -0.00876991 
-0.0260303 -0.00369605 -0.00876991 
-0.0280284 -0.00725557 -0.00876991 
-0.0205317 0.00678554 -0.00876991 
-0.02836 0.000566531 -0.00876991 
-0.0283046 -0.0100771 -0.00876991 
-0.0276358 0.00245711 -0.00876991 
-0.0247489 0.00408001 -0.00876991 
-0.020851 0.00400798 -0.00876991 
-0.019046 0.00839575 -0.00876991 
-0.0277961 0.00788235 -0.00876991 
-0.0213536 0.00516716 -0.00876991 
-0.0218268 -0.00100511 -0.00876991 
-0.0291639 0.00711153 -0.00876991 
-0.0261385 0.00333681 -0.00876991 
-0.0297016 -0.00823749 -0.00876991 
-0.0291547 -0.0109994 -0.00876991 
-0.0234125 -0.00323868 -0.00876991 
-0.0136544 0.0127875 -0.00876991 
-0.022472 0.00883617 -0.00876991 
-0.0254145 0.00917779 -0.00876991 
-0.0257841 -0.00409824 -0.00876991 
-0.0159481 0.0102151 -0.00876991 
-0.0133927 0.0117505 -0.00876991 
-0.0198411 0.011567 -0.00876991 
-0.0151664 0.0118509 -0.00876991 
-0.0214278 0.00657943 -0.00876991 
-0.0297796 0.00263208 -0.00876991 
-0.0269275 -0.00545951 -0.00876991 
-0.0222519 0.00974804 -0.00876991 
-0.0287808 -0.00697497 -0.00876991 
-0.0247252 -0.00134327 -0.00876991 
-0.0256777 -0.00449927 -0.00876991 
-0.0278689 0.000710836 -0.00876991 
-0.0287823 0.000433569 -0.00876991 
-0.0261992 -0.0040543 -0.00876991 
-0.0205882 0.0117959 -0.00876991 
-0.0218834 0.00868229 -0.00876991 
-0.0271415 -0.00274262 -0.00876991 
-0.0269795 -0.00224412 -0.00876991 
-0.0263718 0.0109926 -0.00876991 
-0.0294134 0.00959273 -0.00876991 
-0.0212075 0.00393929 -0.00876991 
-0.0157275 0.0104694 -0.00876991 
-0.0226936 -0.00143202 -0.00876991 
-0.0295412 -0.00599168 -0.00876991 
-0.0281409 -0.00338281 -0.00876991 
-0.0268485 0.010289 -0.00876991 
-0.0289419 0.0072555 -0.00876991 
-0.028179 0.00992796 -0.00876991 
-0.0192838 0.0082326 -0.00876991 
-0.0265602 0.000113459 -0.00876991 
-0.028487 -0.00557662 -0.00876991 
-0.0191878 0.00294459 -0.00876991 
-0.0204345 0.00804536 -0.00876991 
-0.0247394 0.00242191 -0.00876991 
-0.0259481 -0.00226488 -0.00876991 
-0.0238489 -0.00120629 -0.00876991 
-0.0265091 0.0109071 -0.00876991 
-0.017207 0.0124346 -0.00876991 
-0.0285727 0.00558471 -0.00876991 
-0.0238122 0.00577439 -0.00876991 
-0.0250578 0.00678774 -0.00876991 
-0.0280999 -0.00143195 -0.00876991 
-0.0289765 0.00539973 -0.00876991 
-0.0287814 -0.00956436 -0.00876991 
-0.0244855 -0.00261781 -0.00876991 
-0.020869 0.00860657 -0.00876991 
-0.0250979 -0.00416955 -0.00876991 
-0.0175431 0.00704221 -0.00876991 
-0.0263472 0.00366649 -0.00876991 
-0.0281276 0.00847859 -0.00876991 
-0.0218649 0.00046906 -0.00876991 
-0.0285215 0.0116316 -0.00876991 
-0.0276002 0.00854121 -0.00876991 
-0.0201059 0.00496836 -0.00876991 
-0.029408 0.00961397 -0.00876991 
-0.0289642 0.0104395 -0.00876991 
-0.0228064 -0.0015685 -0.00876991 
-0.0216357 0.00525574 -0.00876991 
-0.0285804 0.00762058 -0.00876991 
-0.0239366 -0.00174827 -0.00876991 
-0.0185077 0.00951043 -0.00876991 
-0.0271032 0.00569433 -0.00876991 
-0.0282344 0.00516605 -0.00876991 
-0.0208308 0.00164056 -0.00876991 
-0.0264691 0.002174 -0.00876991 
-0.0258092 0.00682351 -0.00876991 
-0.0223076 0.00613725 -0.00876991 
-0.0216405 0.0112535 -0.00876991 
-0.0203593 0.00670995 -0.00876991 
-0.0249393 0.00729269 -0.00876991 
-0.0263826 -0.000114244 -0.00876991 
-0.0248234 0.00648415 -0.00876991 
-0.0253909 -0.00126834 -0.00876991 
-0.0174183 0.010097 -0.00876991 
-0.0249775 -0.0053804 -0.00876991 
-0.0297635 0.004031 -0.00876991 
-0.0206618 0.007827 -0.00876991 
-0.0282316 -0.00345834 -0.00876991 
-0.0271179 0.0120271 -0.00876991 
-0.0254615 -0.00651198 -0.00876991 
-0.0268088 -0.00358744 -0.00876991 
-0.0273225 -0.00354542 -0.00876991 
-0.0259511 -0.00647635 -0.00876991 
-0.0276915 -0.00539104 -0.00876991 
-0.0229559 0.00324243 -0.00876991 
-0.0171741 0.00617914 -0.00876991 
-0.0233897 0.0102946 -0.00876991 
-0.0280476 -0.00435681 -0.00876991 
-0.022973 0.00875517 -0.00876991 
-0.0289585 -0.00965013 -0.00876991 
-0.024623 0.012526 -0.00876991 
-0.0215398 0.00315062 -0.00876991 
-0.0285945 0.0017606 -0.00876991 
-0.0289567 -0.00154013 -0.00876991 
-0.0217741 0.00178401 -0.00876991 
-0.0265276 -0.00658508 -0.00876991 
-0.0281212 0.00775962 -0.00876991 
-0.0230947 0.00634979 -0.00876991 
-0.0293225 0.00121424 -0.00876991 
-0.028132 -0.00810577 -0.00876991 
-0.0280244 0.00991662 -0.00876991 
-0.0267391 -0.00411564 -0.00876991 
-0.0198739 0.00905311 -0.00876991 
-0.025792 -0.00264615 -0.00876991 
-0.0163655 0.00946615 -0.00876991 
-0.0205834 0.00146406 -0.00876991 
-0.0167327 0.0129028 -0.00876991 
-0.0234442 0.00516988 -0.00876991 
-0.0230492 0.00235478 -0.00876991 
-0.026298 0.0025897 -0.00876991 
-0.0265309 0.000105389 -0.00876991 
-0.0155473 0.00863208 -0.00876991 
-0.0218958 0.00623227 -0.00876991 
-0.0191676 0.00433632 -0.00876991 
-0.0286786 0.00179888 -0.00876991 
-0.0258192 0.0044807 -0.00876991 
-0.026657 0.0052902 -0.00876991 
-0.0211251 0.000121434 -0.00876991 
-0.0289659 -0.00171007 -0.00876991 
-0.0294112 -0.00157999 -0.00876991 
-0.0229523 0.00331618 -0.00876991 
-0.0277708 0.0050865 -0.00876991 
-0.0296323 -0.000875789 -0.00876991 
-0.0248562 -0.00238914 -0.00876991 
-0.0244062 0.00327587 -0.00876991 
-0.025924 0.0124224 -0.00876991 
-0.0257386 0.00518192 -0.00876991 
-0.0215603 0.00806422 -0.00876991 
-0.0287666 0.00525922 -0.00876991 
-0.0253241 0.00832731 -0.00876991 
-0.0211217 0.00235723 -0.00876991 
-0.024602 0.0125082 -0.00876991 
-0.0197887 0.0121474 -0.00876991 
-0.0225212 0.0103681 -0.00876991 
-0.0232876 -8.40388e-05 -0.00876991 
-0.0205356 0.00923058 -0.00876991 
-0.0287933 0.00512096 -0.00876991 
-0.027227 0.00660289 -0.00876991 
-0.024586 0.0102436 -0.00876991 
-0.0270095 0.00971487 -0.00876991 
-0.0278437 -0.00220017 -0.00876991 
-0.0269441 0.0107959 -0.00876991 
-0.014877 0.00977958 -0.00876991 
-0.0277306 0.0110929 -0.00876991 
-0.0245151 0.011108 -0.00876991 
-0.0277767 -0.00125414 -0.00876991 
-0.0266117 -0.00361733 -0.00876991 
-0.0178341 0.00953411 -0.00876991 
-0.0192217 0.0057579 -0.00876991 
-0.0275904 -0.00155045 -0.00876991 
-0.0279599 -0.00758491 -0.00876991 
-0.0251623 0.00931799 -0.00876991 
-0.0292433 0.0117782 -0.00876991 
-0.0194069 0.00697586 -0.00876991 
-0.0201381 0.00936657 -0.00876991 
-0.0218986 0.00493366 -0.00876991 
-0.0233017 0.00687438 -0.00876991 
-0.020696 0.000976017 -0.00876991 
-0.0235655 0.00570115 -0.00876991 
-0.0268035 -0.0016528 -0.00876991 
-0.017525 0.0105956 -0.00876991 
-0.0175254 0.0125403 -0.00876991 
-0.0280193 0.000976917 -0.00876991 
-0.0273762 -0.000232745 -0.00876991 
-0.0297183 0.00150647 -0.00876991 
-0.0238569 0.00459289 -0.00876991 
-0.0206111 0.00608184 -0.00876991 
-0.0286907 -0.006669 -0.00876991 
-0.0176553 0.00607297 -0.00876991 
-0.028524 0.00869266 -0.00876991 
-0.0210327 0.00862922 -0.00876991 
-0.028486 0.00733999 -0.00876991 
-0.0220443 0.0110653 -0.00876991 
-0.0281424 0.00969903 -0.00876991 
-0.0279424 -0.00255424 -0.00876991 
-0.0245143 0.00165273 -0.00876991 
-0.0184313 0.00719241 -0.00876991 
-0.0214544 0.00399952 -0.00876991 
-0.0194787 0.00450466 -0.00876991 
-0.0215145 0.00636189 -0.00876991 
-0.0184129 0.0117154 -0.00876991 
-0.0195267 0.00977539 -0.00876991 
-0.0264835 -0.00611197 -0.00876991 
-0.0271481 -0.00705977 -0.00876991 
-0.0248179 0.00389357 -0.00876991 
-0.0281943 0.00238714 -0.00876991 
-0.0259664 -0.0033403 -0.00876991 
-0.0232787 0.00818833 -0.00876991 
-0.0246351 0.00931457 -0.00876991 
-0.0151634 0.0120644 -0.00876991 
-0.0291745 0.000698001 -0.00876991 
-0.0293387 0.0122099 -0.00876991 
-0.0275498 0.0100532 -0.00876991 
-0.0191237 0.0124422 -0.00876991 
-0.0283402 0.0115271 -0.00876991 
-0.0273823 -0.00866803 -0.00876991 
-0.024574 0.00747542 -0.00876991 
-0.0286026 -0.00391476 -0.00876991 
-0.0295462 -0.00326585 -0.00876991 
-0.0212321 0.0122828 -0.00876991 
-0.016297 0.0100828 -0.00876991 
-0.0271887 -0.00272497 -0.00876991 
-0.0278049 -0.00326422 -0.00876991 
-0.0241833 0.00914468 -0.00876991 
-0.0237251 0.00800572 -0.00876991 
-0.0285188 0.0117475 -0.00876991 
-0.0273457 -4.44744e-05 -0.00876991 
-0.0261324 -0.00650732 -0.00876991 
-0.0289266 -0.00878679 -0.00876991 
-0.0271173 0.00638869 -0.00876991 
-0.0224813 0.00734571 -0.00876991 
-0.028732 -0.0110823 -0.00876991 
-0.0276778 -0.00845884 -0.00876991 
-0.0231128 0.0116442 -0.00876991 
-0.0264695 0.00374307 -0.00876991 
-0.0259324 0.00205632 -0.00876991 
-0.0283259 0.00736842 -0.00876991 
-0.0297555 0.00952158 -0.00876991 
-0.0279367 0.00580414 -0.00876991 
-0.0281592 0.00359269 -0.00876991 
-0.0193519 0.0107875 -0.00876991 
-0.0271775 -0.00407703 -0.00876991 
-0.0188263 0.00338324 -0.00876991 
-0.028472 1.7995e-05 -0.00876991 
-0.0241747 0.00549288 -0.00876991 
-0.0274294 0.00129091 -0.00876991 
-0.0270697 -0.00276961 -0.00876991 
-0.0193653 0.00476767 -0.00876991 
-0.0201241 0.00244363 -0.00876991 
-0.0158794 0.00824555 -0.00876991 
-0.0136479 0.0120203 -0.00876991 
-0.0259242 -0.00566213 -0.00876991 
-0.0226225 0.0100921 -0.00876991 
-0.0223036 0.000511173 -0.00876991 
-0.0223403 0.00695527 -0.00876991 
-0.0270937 -0.00483724 -0.00876991 
-0.0272637 0.0105521 -0.00876991 
-0.0249038 0.00999923 -0.00876991 
-0.0279373 0.00369634 -0.00876991 
-0.0227507 -0.000235661 -0.00876991 
-0.0205757 0.00519599 -0.00876991 
-0.0271561 0.00747722 -0.00876991 
-0.024957 -0.00564849 -0.00876991 
-0.0168936 0.0104764 -0.00876991 
-0.0227986 5.56121e-05 -0.00876991 
-0.024298 0.00177706 -0.00876991 
-0.0176471 0.0117751 -0.00876991 
-0.0204585 0.0102433 -0.00876991 
-0.0280932 0.00583617 -0.00876991 
-0.0262219 -0.00716782 -0.00876991 
-0.0226283 -0.000812256 -0.00876991 
-0.0290678 -0.00191042 -0.00876991 
-0.02837 0.0112757 -0.00876991 
-0.0231253 0.010455 -0.00876991 
-0.0279442 -0.0049009 -0.00876991 
-0.025287 0.00706435 -0.00876991 
-0.0264725 0.0094313 -0.00876991 
-0.023764 0.00807779 -0.00876991 
-0.0166234 0.00812721 -0.00876991 
-0.0217044 0.00891038 -0.00876991 
-0.0285837 -0.0070144 -0.00876991 
-0.0277866 0.00591533 -0.00876991 
-0.0208539 0.00480277 -0.00876991 
-0.0185734 0.0110321 -0.00876991 
-0.0179248 0.00517355 -0.00876991 
-0.0238153 -3.21148e-05 -0.00876991 
-0.0235884 0.00574605 -0.00876991 
-0.0284455 -0.00582227 -0.00876991 
-0.0276195 0.00578009 -0.00876991 
-0.0191039 0.00645857 -0.00876991 
-0.0214895 -0.000301378 -0.00876991 
-0.0283193 0.00410794 -0.00876991 
-0.0232911 -0.00208978 -0.00876991 
-0.0245549 -0.00474637 -0.00876991 
-0.0263318 -0.00359029 -0.00876991 
-0.0277297 -7.16057e-05 -0.00876991 
-0.0210577 0.00165035 -0.00876991 
-0.0279883 0.00356191 -0.00876991 
-0.0263903 -0.00555928 -0.00876991 
-0.0226148 0.000384757 -0.00876991 
-0.0254217 0.00373094 -0.00876991 
-0.0285931 0.0110895 -0.00876991 
-0.0253908 0.0104331 -0.00876991 
-0.0279131 0.00013898 -0.00876991 
-0.0215558 0.0118876 -0.00876991 
-0.0237938 0.0128772 -0.00876991 
-0.0236948 -0.0014626 -0.00876991 
-0.0277305 -0.00946469 -0.00876991 
-0.0188146 0.00636162 -0.00876991 
-0.0176319 0.00716927 -0.00876991 
-0.0238195 0.00779783 -0.00876991 
-0.02725 -0.00194217 -0.00876991 
-0.0230921 0.00866472 -0.00876991 
-0.028913 0.0121625 -0.00876991 
-0.0268467 -0.00574788 -0.00876991 
-0.0294909 0.00733969 -0.00876991 
-0.0294688 0.0122374 -0.00876991 
-0.0292208 -0.0101045 -0.00876991 
-0.0178734 0.00853563 -0.00876991 
-0.0255616 -0.00146429 -0.00876991 
-0.0262373 -0.00597082 -0.00876991 
-0.0206738 0.00542457 -0.00876991 
-0.0189358 0.00351401 -0.00876991 
-0.0249955 -0.00380438 -0.00876991 
-0.0231541 0.00645054 -0.00876991 
-0.0281783 -0.00282349 -0.00876991 
-0.0266861 -0.00236756 -0.00876991 
-0.02106 0.00106034 -0.00876991 
-0.0251043 0.00346202 -0.00876991 
-0.0275927 0.0105528 -0.00876991 
-0.0246776 0.00249254 -0.00876991 
-0.0191554 0.00388877 -0.00876991 
-0.0289843 -2.30465e-05 -0.00876991 
-0.0206749 0.00964136 -0.00876991 
-0.0218706 0.0068634 -0.00876991 
-0.0286835 -0.00221715 -0.00876991 
-0.0266373 0.00977708 -0.00876991 
-0.0269991 -0.00743877 -0.00876991 
-0.0295322 0.00489367 -0.00876991 
-0.0282164 0.00355963 -0.00876991 
-0.0192524 0.00926907 -0.00876991 
-0.0247058 0.00807115 -0.00876991 
-0.0258738 0.00352606 -0.00876991 
-0.0290249 -0.0103102 -0.00876991 
-0.024691 0.00291197 -0.00876991 
-0.0290155 0.00344261 -0.00876991 
-0.0266829 -0.00552568 -0.00876991 
-0.0194432 0.00605946 -0.00876991 
-0.0178881 0.00563453 -0.00876991 
-0.0291987 -0.00323497 -0.00876991 
-0.0260947 0.00342559 -0.00876991 
-0.0211031 0.00958385 -0.00876991 
-0.0185595 0.00985677 -0.00876991 
-0.0203517 0.00476811 -0.00876991 
-0.0242901 -0.00438742 -0.00876991 
-0.0287908 0.011201 -0.00876991 
-0.0276031 0.0101142 -0.00876991 
-0.020576 0.00183839 -0.00876991 
-0.0291058 0.00241394 -0.00876991 
-0.0269456 0.00258499 -0.00876991 
-0.0232087 0.00190035 -0.00876991 
-0.020415 0.010481 -0.00876991 
-0.0234692 -0.00284061 -0.00876991 
-0.0274115 -0.00371667 -0.00876991 
-0.0255751 0.00347732 -0.00876991 
-0.0202716 0.0074775 -0.00876991 
-0.0254702 -0.00176915 -0.00876991 
-0.0241237 0.00581474 -0.00876991 
-0.0289735 -0.00851373 -0.00876991 
-0.0249805 0.00309551 -0.00876991 
-0.0234002 0.00866204 -0.00876991 
-0.0232236 0.00535573 -0.00876991 
-0.0230444 -0.000810143 -0.00876991 
-0.0292735 -0.00786512 -0.00876991 
-0.0278752 0.00593965 -0.00876991 
-0.0257403 -0.00179217 -0.00876991 
-0.0216315 0.00801163 -0.00876991 
-0.0269048 -0.00582528 -0.00876991 
-0.0270279 0.00105725 -0.00876991 
-0.017689 0.00645825 -0.00876991 
-0.0278657 0.00184188 -0.00876991 
-0.0288686 0.0116841 -0.00876991 
-0.0193854 0.0046229 -0.00876991 
-0.0294128 -0.00863708 -0.00876991 
-0.0189374 0.00920182 -0.00876991 
-0.0251228 -0.00520349 -0.00876991 
-0.0167313 0.0109528 -0.00876991 
-0.0297274 0.00778743 -0.00876991 
-0.0256194 0.00471365 -0.00876991 
-0.0263966 0.00637591 -0.00876991 
-0.0288685 2.33045e-05 -0.00876991 
-0.0210143 0.00218904 -0.00876991 
-0.0275825 0.0111733 -0.00876991 
-0.029348 0.0095352 -0.00876991 
-0.0225493 0.0103922 -0.00876991 
-0.0212557 0.0123196 -0.00876991 
-0.0293174 -0.00109314 -0.00876991 
-0.0280211 0.010148 -0.00876991 
-0.0225356 0.00837639 -0.00876991 
-0.0292393 -0.0060336 -0.00876991 
-0.0244247 0.01067 -0.00876991 
-0.0292862 -0.00341167 -0.00876991 
-0.0293672 -0.00984111 -0.00876991 
-0.0252738 -0.00531994 -0.00876991 
-0.0278464 0.00179191 -0.00876991 
-0.0249458 0.00409733 -0.00876991 
-0.0297407 0.00295509 -0.00876991 
-0.0150075 0.0116501 -0.00876991 
-0.0286557 0.0043695 -0.00876991 
-0.0297322 -0.00538303 -0.00876991 
-0.0218355 0.00257397 -0.00876991 
-0.0295057 0.00841417 -0.00876991 
-0.0263213 -0.00268785 -0.00876991 
-0.0156928 0.0097799 -0.00876991 
-0.0166088 0.00981702 -0.00876991 
-0.0289156 0.00538314 -0.00876991 
-0.0171305 0.0113927 -0.00876991 
-0.0163283 0.0115505 -0.00876991 
-0.0183268 0.0040684 -0.00876991 
-0.0219479 0.00782442 -0.00876991 
-0.0218979 0.00233702 -0.00876991 
-0.0260487 -0.003346 -0.00876991 
-0.0296301 0.00832837 -0.00876991 
-0.0178689 0.0114273 -0.00876991 
-0.0256605 0.00967801 -0.00876991 
-0.0161445 0.00746262 -0.00876991 
-0.0207044 0.0027259 -0.00876991 
-0.0184203 0.00740269 -0.00876991 
-0.0186747 -0.00157186 -0.00876991 
-0.0202866 -0.00132188 -0.00876991 
-0.0193859 -0.00523328 -0.00876991 
-0.0131019 0.0115817 -0.00876991 
-0.0125223 0.00277977 -0.00876991 
-0.0218488 -0.00442553 -0.00876991 
-0.0178433 0.00406698 -0.00876991 
-0.0223868 -0.00431233 -0.00876991 
-0.0136192 0.00691494 -0.00876991 
-0.0210029 -0.00412026 -0.00876991 
-0.0129512 0.0119169 -0.00876991 
-0.0141577 0.00573961 -0.00876991 
-0.0146333 0.00063597 -0.00876991 
-0.0245249 -0.00660064 -0.00876991 
-0.0131857 0.0057496 -0.00876991 
-0.0148986 0.00122551 -0.00876991 
-0.0221451 -0.00292258 -0.00876991 
-0.016009 0.00655518 -0.00876991 
-0.0156736 6.37211e-05 -0.00876991 
-0.0130086 0.00299286 -0.00876991 
-0.0195614 0.000448873 -0.00876991 
-0.014827 0.00742846 -0.00876991 
-0.0128691 0.00220834 -0.00876991 
-0.0236275 -0.00423446 -0.00876991 
-0.01342 0.00648737 -0.00876991 
-0.0150077 0.00533284 -0.00876991 
-0.0160382 0.000563212 -0.00876991 
-0.0148565 -0.00124862 -0.00876991 
-0.025186 -0.00783145 -0.00876991 
-0.0136099 0.00897179 -0.00876991 
-0.0200707 -0.0025596 -0.00876991 
-0.0167019 -0.00232917 -0.00876991 
-0.0192073 -0.00381892 -0.00876991 
-0.0135857 0.00851375 -0.00876991 
-0.0200468 -0.00309843 -0.00876991 
-0.0200211 -0.00433142 -0.00876991 
-0.0157508 -0.00101259 -0.00876991 
-0.0221447 -0.0060581 -0.00876991 
-0.0123029 0.0103402 -0.00876991 
-0.0182172 -0.00131476 -0.00876991 
-0.0207911 -0.00288821 -0.00876991 
-0.0215785 -0.00251065 -0.00876991 
-0.0145489 0.0019492 -0.00876991 
-0.0131965 0.0102498 -0.00876991 
-0.018922 -0.00232546 -0.00876991 
-0.0205008 -0.00178098 -0.00876991 
-0.012884 0.00703573 -0.00876991 
-0.020143 -0.000940841 -0.00876991 
-0.0125714 0.0110695 -0.00876991 
-0.0270145 -0.0108344 -0.00876991 
-0.0212799 -0.00572703 -0.00876991 
-0.0219334 -0.00205439 -0.00876991 
-0.0231748 -0.00641976 -0.00876991 
-0.0157285 0.00170246 -0.00876991 
-0.024903 -0.00671705 -0.00876991 
-0.0217701 -0.00682892 -0.00876991 
-0.0262117 -0.00986857 -0.00876991 
-0.0174864 -0.00176579 -0.00876991 
-0.0146933 0.00941541 -0.00876991 
-0.0215317 -0.00552915 -0.00876991 
-0.0261142 -0.00828836 -0.00876991 
-0.0219117 -0.00408414 -0.00876991 
-0.0171711 0.00566457 -0.00876991 
-0.021947 -0.00229952 -0.00876991 
-0.0136674 -0.000669008 -0.00876991 
-0.0168093 -0.000438531 -0.00876991 
-0.0170581 0.00591848 -0.00876991 
-0.016653 0.00534392 -0.00876991 
-0.0190938 -0.00413693 -0.00876991 
-0.0159659 0.00551232 -0.00876991 
-0.0208044 -0.00572955 -0.00876991 
-0.0152612 0.00766027 -0.00876991 
-0.013715 0.00355687 -0.00876991 
-0.0157027 0.00389805 -0.00876991 
-0.01267 0.00234073 -0.00876991 
-0.0217219 -0.00575687 -0.00876991 
-0.0211453 -0.00407248 -0.00876991 
-0.0232771 -0.00673136 -0.00876991 
-0.0181076 -0.00250613 -0.00876991 
-0.0162173 0.000584428 -0.00876991 
-0.0146061 0.00942823 -0.00876991 
-0.0148187 0.00468521 -0.00876991 
-0.0210455 -0.000765016 -0.00876991 
-0.0145564 0.000205568 -0.00876991 
-0.0125633 0.0105449 -0.00876991 
-0.0183275 -0.00275772 -0.00876991 
-0.0170395 0.00436988 -0.00876991 
-0.0234205 -0.00573078 -0.00876991 
-0.0179254 -0.00118478 -0.00876991 
-0.0139644 0.00537496 -0.00876991 
-0.0251844 -0.00815419 -0.00876991 
-0.0220779 -0.00585874 -0.00876991 
-0.0130694 0.0013486 -0.00876991 
-0.0179932 0.00254295 -0.00876991 
-0.0183008 0.00208432 -0.00876991 
-0.0127724 0.00899269 -0.00876991 
-0.0133301 0.00475036 -0.00876991 
-0.0200047 -0.00390395 -0.00876991 
-0.021574 -0.00332372 -0.00876991 
-0.0201154 -0.00534637 -0.00876991 
-0.0179865 -0.000669646 -0.00876991 
-0.0147692 0.00790413 -0.00876991 
-0.0219929 -0.00331069 -0.00876991 
-0.0131316 0.00979791 -0.00876991 
-0.0132503 0.00133196 -0.00876991 
-0.0153702 0.00128035 -0.00876991 
-0.0138063 0.0069876 -0.00876991 
-0.017189 -0.00218662 -0.00876991 
-0.0227555 -0.00566977 -0.00876991 
-0.0135687 0.00211669 -0.00876991 
-0.016629 0.00595767 -0.00876991 
-0.0270196 -0.00904672 -0.00876991 
-0.0248807 -0.00859988 -0.00876991 
-0.0179051 -0.00165985 -0.00876991 
-0.023095 -0.00737217 -0.00876991 
-0.0219431 -0.00563616 -0.00876991 
-0.0128381 0.00589303 -0.00876991 
-0.0239774 -0.00645125 -0.00876991 
-0.0141355 0.00240492 -0.00876991 
-0.0162872 0.00359846 -0.00876991 
-0.0217694 -0.00652995 -0.00876991 
-0.018988 0.00151082 -0.00876991 
-0.0233463 -0.00671534 -0.00876991 
-0.0164737 0.00101681 -0.00876991 
-0.021613 -0.00631524 -0.00876991 
-0.0154326 0.000680902 -0.00876991 
-0.014514 0.00739548 -0.00876991 
-0.0274496 -0.00997382 -0.00876991 
-0.0257144 -0.00962398 -0.00876991 
-0.0145163 -0.000237658 -0.00876991 
-0.0140529 0.00292277 -0.00876991 
